# .PCD v.7 - Exported by BlenSor
VERSION .7
FIELDS x y z rgb
SIZE 4 4 4 4
TYPE F F F F
COUNT 1 1 1 1
WIDTH 956
HEIGHT 1
VIEWPOINT 0 0 0 1 0 0 0
POINTS 956
DATA ascii
3.713240 -1.665370 1.249023 1.880790849211783e-38
3.710588 -1.665369 1.315660 1.880790849211783e-38
3.707954 -1.665370 1.381884 1.880790849211783e-38
3.705336 -1.665370 1.447700 1.880790849211783e-38
3.702734 -1.665370 1.513110 1.880790849211783e-38
3.700147 -1.665370 1.578119 1.880790849211783e-38
3.697576 -1.665370 1.642729 1.880790849211783e-38
3.695021 -1.665370 1.706946 1.880790849211783e-38
3.692482 -1.665370 1.770774 1.880790849211783e-38
3.689957 -1.665370 1.834213 1.880790849211783e-38
3.687449 -1.665370 1.897269 1.880790849211783e-38
3.684955 -1.665370 1.959946 1.880790849211783e-38
3.682476 -1.665370 2.022244 1.880790849211783e-38
3.680013 -1.665370 2.084172 1.880790849211783e-38
3.677563 -1.665369 2.145727 1.880790849211783e-38
3.675129 -1.665370 2.206918 1.880790849211783e-38
3.672709 -1.665370 2.267746 1.880790849211783e-38
3.670303 -1.665370 2.328212 1.880790849211783e-38
3.667912 -1.665370 2.388322 1.880790849211783e-38
3.665534 -1.665370 2.448079 1.880790849211783e-38
3.663170 -1.665370 2.507485 1.880790849211783e-38
3.660820 -1.665370 2.566543 1.880790849211783e-38
3.658484 -1.665370 2.625257 1.880790849211783e-38
3.656162 -1.665370 2.683629 1.880790849211783e-38
3.653853 -1.665370 2.741663 1.880790849211783e-38
3.651558 -1.665370 2.799362 1.880790849211783e-38
3.649275 -1.665369 2.856727 1.880790849211783e-38
3.647006 -1.665370 2.913763 1.880790849211783e-38
3.644750 -1.665370 2.970473 1.880790849211783e-38
3.642506 -1.665370 3.026857 1.880790849211783e-38
3.640276 -1.665370 3.082921 1.880790849211783e-38
3.638058 -1.665370 3.138666 1.880790849211783e-38
3.635853 -1.665370 3.194095 1.880790849211783e-38
3.633660 -1.665370 3.249211 1.880790849211783e-38
3.631479 -1.665370 3.304016 1.880790849211783e-38
3.629311 -1.665370 3.358513 1.880790849211783e-38
3.627155 -1.665370 3.412705 1.880790849211783e-38
3.625010 -1.665369 3.466594 1.880790849211783e-38
3.622878 -1.665369 3.520182 1.880790849211783e-38
3.620758 -1.665370 3.573474 1.880790849211783e-38
3.618650 -1.665370 3.626469 1.880790849211783e-38
3.616553 -1.665369 3.679172 1.880790849211783e-38
4.046977 -2.165370 4.192357 1.880790849211783e-38
4.045110 -2.165369 4.239278 1.880790849211783e-38
4.043253 -2.165370 4.285942 1.880790849211783e-38
4.041406 -2.165369 4.332350 1.880790849211783e-38
4.022463 -2.145630 4.361131 1.880790849211783e-38
3.974682 -2.092639 4.361131 1.880790849211783e-38
3.926039 -2.038692 4.361131 1.880790849211783e-38
3.876509 -1.983761 4.361132 1.880790849211783e-38
3.826067 -1.927819 4.361131 1.880790849211783e-38
3.774688 -1.870839 4.361131 1.880790849211783e-38
3.722348 -1.812791 4.361132 1.880790849211783e-38
3.669016 -1.753644 4.361131 1.880790849211783e-38
3.614666 -1.693368 4.361131 1.880790849211783e-38
3.559268 -1.631929 4.361131 1.880790849211783e-38
3.502791 -1.569295 4.361131 1.880790849211783e-38
3.445204 -1.505429 4.361132 1.880790849211783e-38
3.386473 -1.440294 4.361131 1.880790849211783e-38
3.326565 -1.373853 4.361131 1.880790849211783e-38
3.265442 -1.306066 4.361131 1.880790849211783e-38
3.203069 -1.236891 4.361131 1.880790849211783e-38
3.139405 -1.166286 4.361131 1.880790849211783e-38
3.074412 -1.094206 4.361131 1.880790849211783e-38
3.008046 -1.020604 4.361131 1.880790849211783e-38
2.940264 -0.945430 4.361131 1.880790849211783e-38
-1.765965 4.434631 0.719686 1.880790849211783e-38
-1.770013 4.434631 0.821409 1.880790849211783e-38
-1.774040 4.434632 0.922608 1.880790849211783e-38
-1.778043 4.434630 1.023290 1.880790849211783e-38
-1.782029 4.434630 1.123456 1.880790849211783e-38
-1.785994 4.434631 1.223110 1.880790849211783e-38
-1.789938 4.434630 1.322258 1.880790849211783e-38
-1.793864 4.434630 1.420901 1.880790849211783e-38
-1.797768 4.434630 1.519045 1.880790849211783e-38
-1.801653 4.434630 1.616694 1.880790849211783e-38
-1.805518 4.434630 1.713850 1.880790849211783e-38
-1.809366 4.434631 1.810517 1.880790849211783e-38
-1.813191 4.434630 1.906701 1.880790849211783e-38
-1.816999 4.434630 2.002403 1.880790849211783e-38
-1.820787 4.434630 2.097629 1.880790849211783e-38
-1.824557 4.434630 2.192380 1.880790849211783e-38
-1.828309 4.434630 2.286660 1.880790849211783e-38
-1.855885 4.461716 2.365925 1.880790849211783e-38
-1.855884 4.457488 2.461739 1.880790849211783e-38
-1.855885 4.453284 2.557008 1.880790849211783e-38
-1.855884 4.449103 2.651738 1.880790849211783e-38
-1.855885 4.444948 2.745932 1.880790849211783e-38
-1.855884 4.440814 2.839596 1.880790849211783e-38
-1.855884 4.436705 2.932734 1.880790849211783e-38
-1.857661 4.434630 3.024385 1.880790849211783e-38
-1.861249 4.434631 3.114586 1.880790849211783e-38
-1.864821 4.434631 3.204350 1.880790849211783e-38
-1.868375 4.434630 3.293681 1.880790849211783e-38
-1.871912 4.434630 3.382580 1.880790849211783e-38
-1.875432 4.434630 3.471052 1.880790849211783e-38
-1.878935 4.434630 3.559100 1.880790849211783e-38
-1.882422 4.434631 3.646726 1.880790849211783e-38
-1.885891 4.434631 3.733934 1.880790849211783e-38
-1.889344 4.434630 3.820727 1.880790849211783e-38
-1.892781 4.434631 3.907107 1.880790849211783e-38
-1.896202 4.434632 3.993077 1.880790849211783e-38
-1.899606 4.434630 4.078642 1.880790849211783e-38
-1.814324 4.334630 4.201463 1.843732250154095e-38
-1.817667 4.334631 4.285460 1.843732250154095e-38
-1.840469 4.356581 4.361129 1.843732250154095e-38
-2.052939 4.592219 4.361131 1.843732250154095e-38
-2.209530 4.764781 4.386130 4.678262949117688e-40
-2.260286 4.818088 4.453726 1.843732250154095e-38
-2.674610 5.280572 4.386131 4.678262949117688e-40
-2.921469 5.554348 4.386131 4.678262949117688e-40
-3.178676 5.839600 4.386131 4.678262949117688e-40
-3.518800 6.217913 4.361131 1.843732250154095e-38
-3.800518 6.530349 4.361131 1.843732250154095e-38
-4.094836 6.856759 4.361132 1.843732250154095e-38
-4.105884 6.864784 4.456915 1.880790849211783e-38
-4.406937 7.198477 4.461131 1.880790849211783e-38
-4.443108 7.234631 4.550911 1.880790849211783e-38
-4.447065 7.234632 4.650364 1.880790849211783e-38
-4.451005 7.234632 4.749365 1.880790849211783e-38
-4.454924 7.234630 4.847919 1.880790849211783e-38
-4.458827 7.234631 4.946025 1.880790849211783e-38
-4.462713 7.234631 5.043688 1.880790849211783e-38
-4.466582 7.234632 5.140912 1.880790849211783e-38
-4.470432 7.234631 5.237698 1.880790849211783e-38
-4.474266 7.234631 5.334050 1.880790849211783e-38
-4.478083 7.234632 5.429971 1.880790849211783e-38
-4.481882 7.234631 5.525464 1.880790849211783e-38
-4.105884 6.809765 5.703831 1.880790849211783e-38
-4.489430 7.234631 5.715176 1.880790849211783e-38
-4.493178 7.234630 5.809400 1.880790849211783e-38
-4.496911 7.234632 5.903208 1.880790849211783e-38
-4.500625 7.234630 5.996602 1.880790849211783e-38
-4.504326 7.234632 6.089583 1.880790849211783e-38
-4.105885 6.785575 6.252068 1.880790849211783e-38
-4.140254 6.819983 6.336131 1.880790849211783e-38
-4.515326 7.234631 6.366088 1.880790849211783e-38
-4.518963 7.234632 6.457450 1.880790849211783e-38
-4.522581 7.234631 6.548416 1.880790849211783e-38
-4.526186 7.234632 6.638985 1.880790849211783e-38
-4.529772 7.234631 6.729161 1.880790849211783e-38
3.774598 -1.665370 1.089648 1.880790849211783e-38
3.771747 -1.665370 1.157009 1.880790849211783e-38
3.768912 -1.665369 1.223951 1.880790849211783e-38
3.766096 -1.665370 1.290480 1.880790849211783e-38
3.763298 -1.665370 1.356597 1.880790849211783e-38
3.760516 -1.665370 1.422307 1.880790849211783e-38
3.757752 -1.665370 1.487613 1.880790849211783e-38
3.755004 -1.665370 1.552519 1.880790849211783e-38
3.752273 -1.665370 1.617030 1.880790849211783e-38
3.749558 -1.665370 1.681149 1.880790849211783e-38
3.746861 -1.665370 1.744878 1.880790849211783e-38
3.744179 -1.665370 1.808222 1.880790849211783e-38
3.741514 -1.665370 1.871185 1.880790849211783e-38
3.738864 -1.665370 1.933768 1.880790849211783e-38
3.736231 -1.665370 1.995978 1.880790849211783e-38
3.733613 -1.665369 2.057815 1.880790849211783e-38
3.731012 -1.665370 2.119285 1.880790849211783e-38
3.728424 -1.665369 2.180388 1.880790849211783e-38
3.725853 -1.665370 2.241131 1.880790849211783e-38
3.723297 -1.665369 2.301515 1.880790849211783e-38
3.720756 -1.665370 2.361544 1.880790849211783e-38
3.718229 -1.665369 2.421220 1.880790849211783e-38
3.715718 -1.665370 2.480547 1.880790849211783e-38
3.713221 -1.665370 2.539529 1.880790849211783e-38
3.710739 -1.665370 2.598166 1.880790849211783e-38
3.708271 -1.665369 2.656463 1.880790849211783e-38
3.705817 -1.665370 2.714424 1.880790849211783e-38
3.703378 -1.665370 2.772051 1.880790849211783e-38
3.700953 -1.665370 2.829346 1.880790849211783e-38
3.698541 -1.665370 2.886312 1.880790849211783e-38
3.696144 -1.665370 2.942953 1.880790849211783e-38
3.693759 -1.665370 2.999271 1.880790849211783e-38
3.691388 -1.665369 3.055268 1.880790849211783e-38
3.689032 -1.665370 3.110949 1.880790849211783e-38
3.686688 -1.665370 3.166314 1.880790849211783e-38
3.684358 -1.665370 3.221368 1.880790849211783e-38
3.682039 -1.665369 3.276111 1.880790849211783e-38
3.679734 -1.665369 3.330548 1.880790849211783e-38
3.677444 -1.665369 3.384682 1.880790849211783e-38
3.675165 -1.665370 3.438513 1.880790849211783e-38
3.672899 -1.665369 3.492045 1.880790849211783e-38
3.670645 -1.665369 3.545280 1.880790849211783e-38
3.668405 -1.665370 3.598221 1.880790849211783e-38
3.666175 -1.665370 3.650870 1.880790849211783e-38
4.091527 -2.165370 4.166833 1.880790849211783e-38
4.089543 -2.165370 4.213708 1.880790849211783e-38
4.087570 -2.165369 4.260325 1.880790849211783e-38
4.085607 -2.165369 4.306689 1.880790849211783e-38
4.083655 -2.165369 4.352802 1.880790849211783e-38
4.044972 -2.122513 4.361131 1.880790849211783e-38
3.997397 -2.069321 4.361131 1.880790849211783e-38
3.948963 -2.015167 4.361131 1.880790849211783e-38
3.899646 -1.960026 4.361131 1.880790849211783e-38
3.849422 -1.903871 4.361131 1.880790849211783e-38
3.798265 -1.846674 4.361131 1.880790849211783e-38
3.746150 -1.788405 4.361132 1.880790849211783e-38
3.693048 -1.729033 4.361132 1.880790849211783e-38
3.638933 -1.668527 4.361131 1.880790849211783e-38
3.583774 -1.606856 4.361131 1.880790849211783e-38
3.527541 -1.543982 4.361131 1.880790849211783e-38
3.470203 -1.479874 4.361131 1.880790849211783e-38
3.411727 -1.414492 4.361131 1.880790849211783e-38
3.352077 -1.347799 4.361131 1.880790849211783e-38
3.291220 -1.279756 4.361132 1.880790849211783e-38
3.229116 -1.210318 4.361131 1.880790849211783e-38
3.165728 -1.139445 4.361131 1.880790849211783e-38
3.101016 -1.067092 4.361131 1.880790849211783e-38
3.034938 -0.993211 4.361131 1.880790849211783e-38
2.967450 -0.917754 4.361131 1.880790849211783e-38
2.898507 -0.840670 4.361131 1.880790849211783e-38
-1.671337 4.434631 0.857387 1.880790849211783e-38
-1.675596 4.434630 0.958002 1.880790849211783e-38
-1.679834 4.434631 1.058102 1.880790849211783e-38
-1.684050 4.434632 1.157693 1.880790849211783e-38
-1.688244 4.434631 1.256779 1.880790849211783e-38
-1.692417 4.434631 1.355362 1.880790849211783e-38
-1.696569 4.434631 1.453447 1.880790849211783e-38
-1.700701 4.434631 1.551038 1.880790849211783e-38
-1.704811 4.434630 1.648139 1.880790849211783e-38
-1.708900 4.434630 1.744752 1.880790849211783e-38
-1.712970 4.434630 1.840882 1.880790849211783e-38
-1.717019 4.434630 1.936533 1.880790849211783e-38
-1.721048 4.434630 2.031707 1.880790849211783e-38
-1.725056 4.434629 2.126409 1.880790849211783e-38
-1.729046 4.434630 2.220641 1.880790849211783e-38
-1.733016 4.434631 2.314408 1.880790849211783e-38
-1.736964 4.434629 2.407714 1.880790849211783e-38
-1.740896 4.434631 2.500560 1.880790849211783e-38
-1.744806 4.434630 2.592951 1.880790849211783e-38
-1.748698 4.434630 2.684890 1.880790849211783e-38
-1.752571 4.434629 2.776381 1.880790849211783e-38
-1.756426 4.434631 2.867425 1.880790849211783e-38
-1.760261 4.434630 2.958028 1.880790849211783e-38
-1.764078 4.434629 3.048192 1.880790849211783e-38
-1.767876 4.434630 3.137920 1.880790849211783e-38
-1.771656 4.434630 3.227215 1.880790849211783e-38
-1.775418 4.434630 3.316081 1.880790849211783e-38
-1.779163 4.434631 3.404520 1.880790849211783e-38
-1.782888 4.434630 3.492537 1.880790849211783e-38
-1.786597 4.434630 3.580132 1.880790849211783e-38
-1.790287 4.434630 3.667311 1.880790849211783e-38
-1.793961 4.434631 3.754074 1.880790849211783e-38
-1.797615 4.434630 3.840428 1.880790849211783e-38
-1.801253 4.434630 3.926372 1.880790849211783e-38
-1.804874 4.434630 4.011911 1.880790849211783e-38
-1.808479 4.434630 4.097047 1.880790849211783e-38
-1.724215 4.334631 4.219282 1.843732250154095e-38
-1.727753 4.334630 4.302862 1.843732250154095e-38
-1.792162 4.403888 4.361129 1.843732250154095e-38
-2.003677 4.640379 4.361131 1.843732250154095e-38
-2.159591 4.813520 4.386130 4.678262949117688e-40
-2.249604 4.911679 4.438614 1.843732250154095e-38
-2.622568 5.331167 4.386130 4.678262949117688e-40
-2.868307 5.605924 4.386131 4.678262949117688e-40
-3.124346 5.892197 4.386131 4.678262949117688e-40
-3.391345 6.190723 4.386131 1.843732250154095e-38
-3.743338 6.585464 4.361131 1.843732250154095e-38
-4.036314 6.913035 4.361131 1.843732250154095e-38
-4.105884 6.987186 4.437942 1.880790849211783e-38
-4.328429 7.234632 4.467021 1.880790849211783e-38
-4.332636 7.234631 4.566463 1.880790849211783e-38
-4.336828 7.234632 4.665450 1.880790849211783e-38
-4.340998 7.234630 4.763991 1.880790849211783e-38
-4.345151 7.234631 4.862087 1.880790849211783e-38
-4.349286 7.234632 4.959740 1.880790849211783e-38
-4.353400 7.234631 5.056954 1.880790849211783e-38
-4.357497 7.234631 5.153732 1.880790849211783e-38
-4.361576 7.234631 5.250077 1.880790849211783e-38
-4.365636 7.234631 5.345991 1.880790849211783e-38
-4.369678 7.234631 5.441479 1.880790849211783e-38
-4.373702 7.234631 5.536541 1.880790849211783e-38
-4.105885 6.927873 5.691091 1.880790849211783e-38
-4.381698 7.234631 5.725404 1.880790849211783e-38
-4.385669 7.234632 5.819209 1.880790849211783e-38
-4.389620 7.234629 5.912604 1.880790849211783e-38
-4.393557 7.234630 6.005584 1.880790849211783e-38
-4.397477 7.234631 6.098157 1.880790849211783e-38
-4.105885 6.901801 6.241947 1.880790849211783e-38
-4.105885 6.897532 6.332150 1.880790849211783e-38
-4.409130 7.234629 6.373458 1.880790849211783e-38
-4.412982 7.234631 6.464426 1.880790849211783e-38
-4.416816 7.234631 6.554999 1.880790849211783e-38
-4.420633 7.234630 6.645180 1.880790849211783e-38
-4.424435 7.234632 6.734972 1.880790849211783e-38
3.827270 -1.665369 1.132188 1.880790849211783e-38
3.824273 -1.665369 1.199020 1.880790849211783e-38
3.821293 -1.665369 1.265439 1.880790849211783e-38
3.818332 -1.665370 1.331450 1.880790849211783e-38
3.815390 -1.665370 1.397055 1.880790849211783e-38
3.812465 -1.665370 1.462257 1.880790849211783e-38
3.809557 -1.665370 1.527061 1.880790849211783e-38
3.806669 -1.665370 1.591471 1.880790849211783e-38
3.803797 -1.665370 1.655492 1.880790849211783e-38
3.800942 -1.665370 1.719124 1.880790849211783e-38
3.798105 -1.665370 1.782374 1.880790849211783e-38
3.795285 -1.665370 1.845242 1.880790849211783e-38
3.792482 -1.665370 1.907734 1.880790849211783e-38
3.789695 -1.665370 1.969853 1.880790849211783e-38
3.786925 -1.665369 2.031601 1.880790849211783e-38
3.784171 -1.665369 2.092983 1.880790849211783e-38
3.781434 -1.665369 2.154001 1.880790849211783e-38
3.778713 -1.665370 2.214659 1.880790849211783e-38
3.776009 -1.665370 2.274961 1.880790849211783e-38
3.773319 -1.665370 2.334908 1.880790849211783e-38
3.770646 -1.665370 2.394504 1.880790849211783e-38
3.767988 -1.665370 2.453752 1.880790849211783e-38
3.765346 -1.665370 2.512656 1.880790849211783e-38
3.762719 -1.665370 2.571218 1.880790849211783e-38
3.760107 -1.665370 2.629441 1.880790849211783e-38
3.757510 -1.665370 2.687328 1.880790849211783e-38
3.754928 -1.665369 2.744882 1.880790849211783e-38
3.752362 -1.665370 2.802106 1.880790849211783e-38
3.749809 -1.665370 2.859003 1.880790849211783e-38
3.747272 -1.665370 2.915576 1.880790849211783e-38
3.744748 -1.665370 2.971826 1.880790849211783e-38
3.742239 -1.665369 3.027758 1.880790849211783e-38
3.739744 -1.665370 3.083374 1.880790849211783e-38
3.737264 -1.665370 3.138676 1.880790849211783e-38
3.734796 -1.665369 3.193666 1.880790849211783e-38
3.732343 -1.665369 3.248349 1.880790849211783e-38
3.729905 -1.665370 3.302727 1.880790849211783e-38
3.727479 -1.665370 3.356800 1.880790849211783e-38
3.725067 -1.665370 3.410573 1.880790849211783e-38
3.722668 -1.665369 3.464048 1.880790849211783e-38
3.720283 -1.665370 3.517228 1.880790849211783e-38
3.717910 -1.665369 3.570114 1.880790849211783e-38
3.715550 -1.665369 3.622709 1.880790849211783e-38
3.713204 -1.665369 3.675016 1.880790849211783e-38
4.133757 -2.165370 4.188264 1.880790849211783e-38
4.131667 -2.165370 4.234837 1.880790849211783e-38
4.129590 -2.165370 4.281156 1.880790849211783e-38
4.127522 -2.165369 4.327223 1.880790849211783e-38
4.114014 -2.151856 4.361131 1.880790849211783e-38
4.067478 -2.099400 4.361131 1.880790849211783e-38
4.020108 -2.046005 4.361131 1.880790849211783e-38
3.971883 -1.991646 4.361132 1.880790849211783e-38
3.922780 -1.936296 4.361131 1.880790849211783e-38
3.872773 -1.879928 4.361132 1.880790849211783e-38
3.821837 -1.822513 4.361131 1.880790849211783e-38
3.769947 -1.764023 4.361131 1.880790849211783e-38
3.717076 -1.704427 4.361131 1.880790849211783e-38
3.663196 -1.643692 4.361132 1.880790849211783e-38
3.608276 -1.581786 4.361131 1.880790849211783e-38
3.552287 -1.518675 4.361131 1.880790849211783e-38
3.495198 -1.454324 4.361131 1.880790849211783e-38
3.436975 -1.388695 4.361131 1.880790849211783e-38
3.377584 -1.321750 4.361131 1.880790849211783e-38
3.316991 -1.253449 4.361131 1.880790849211783e-38
3.255157 -1.183750 4.361131 1.880790849211783e-38
3.192045 -1.112610 4.361131 1.880790849211783e-38
3.127615 -1.039984 4.361131 1.880790849211783e-38
3.061825 -0.965825 4.361131 1.880790849211783e-38
2.994630 -0.890082 4.361130 1.880790849211783e-38
2.925987 -0.812707 4.361130 1.880790849211783e-38
-1.573620 4.434629 0.893016 1.880790849211783e-38
-1.578109 4.434631 0.993050 1.880790849211783e-38
-1.582573 4.434630 1.092578 1.880790849211783e-38
-1.587016 4.434631 1.191601 1.880790849211783e-38
-1.591434 4.434630 1.290124 1.880790849211783e-38
-1.595833 4.434632 1.388149 1.880790849211783e-38
-1.600207 4.434630 1.485683 1.880790849211783e-38
-1.604560 4.434630 1.582726 1.880790849211783e-38
-1.608893 4.434631 1.679284 1.880790849211783e-38
-1.613202 4.434631 1.775360 1.880790849211783e-38
-1.617490 4.434631 1.870958 1.880790849211783e-38
-1.621757 4.434631 1.966082 1.880790849211783e-38
-1.626003 4.434631 2.060734 1.880790849211783e-38
-1.630227 4.434630 2.154918 1.880790849211783e-38
-1.634431 4.434630 2.248638 1.880790849211783e-38
-1.638615 4.434631 2.341897 1.880790849211783e-38
-1.642778 4.434630 2.434699 1.880790849211783e-38
-1.646920 4.434630 2.527046 1.880790849211783e-38
-1.651042 4.434629 2.618943 1.880790849211783e-38
-1.655145 4.434631 2.710392 1.880790849211783e-38
-1.659227 4.434630 2.801397 1.880790849211783e-38
-1.663289 4.434630 2.891961 1.880790849211783e-38
-1.667333 4.434630 2.982087 1.880790849211783e-38
-1.671356 4.434630 3.071779 1.880790849211783e-38
-1.675361 4.434631 3.161038 1.880790849211783e-38
-1.679345 4.434630 3.249870 1.880790849211783e-38
-1.683311 4.434630 3.338277 1.880790849211783e-38
-1.687257 4.434630 3.426261 1.880790849211783e-38
-1.691185 4.434630 3.513826 1.880790849211783e-38
-1.695095 4.434631 3.600974 1.880790849211783e-38
-1.698986 4.434630 3.687709 1.880790849211783e-38
-1.702856 4.434629 3.774035 1.880790849211783e-38
-1.706711 4.434630 3.859952 1.880790849211783e-38
-1.710548 4.434631 3.945464 1.880790849211783e-38
-1.714366 4.434631 4.030575 1.880790849211783e-38
-1.718166 4.434630 4.115288 1.880790849211783e-38
-1.634908 4.334630 4.236942 1.843732250154095e-38
-1.638639 4.334631 4.320110 1.843732250154095e-38
-1.743871 4.451175 4.361130 1.843732250154095e-38
-1.954433 4.688521 4.361131 1.843732250154095e-38
-2.109666 4.862236 4.386131 4.678262949117688e-40
-2.335561 5.116866 4.386132 4.678262949117688e-40
-2.570542 5.381738 4.386132 4.678262949117688e-40
-2.815168 5.657480 4.386131 4.678262949117688e-40
-3.070041 5.944775 4.386131 4.678262949117688e-40
-3.335822 6.244364 4.386131 4.678262949117688e-40
-3.686181 6.640554 4.361131 1.843732250154095e-38
-3.977816 6.969286 4.361131 1.843732250154095e-38
-4.105885 7.110730 4.418791 1.880790849211783e-38
-4.218679 7.234631 4.482904 1.880790849211783e-38
-4.223118 7.234630 4.581880 1.880790849211783e-38
-4.227539 7.234631 4.680408 1.880790849211783e-38
-4.231937 7.234630 4.778490 1.880790849211783e-38
-4.236319 7.234631 4.876133 1.880790849211783e-38
-4.240679 7.234631 4.973338 1.880790849211783e-38
-4.245020 7.234631 5.070106 1.880790849211783e-38
-4.249341 7.234631 5.166443 1.880790849211783e-38
-4.253643 7.234630 5.262352 1.880790849211783e-38
-4.257927 7.234632 5.357832 1.880790849211783e-38
-4.262191 7.234632 5.452889 1.880790849211783e-38
-4.266436 7.234631 5.547525 1.880790849211783e-38
-4.105886 7.047048 5.678236 1.880790849211783e-38
-4.274869 7.234631 5.735547 1.880790849211783e-38
-4.279059 7.234631 5.828937 1.880790849211783e-38
-4.283230 7.234631 5.921918 1.880790849211783e-38
-4.287383 7.234631 6.014491 1.880790849211783e-38
-4.291517 7.234630 6.106660 1.880790849211783e-38
-4.295634 7.234631 6.198428 1.880790849211783e-38
-4.105886 7.014479 6.322366 1.880790849211783e-38
-4.303813 7.234630 6.380766 1.880790849211783e-38
-4.307876 7.234630 6.471344 1.880790849211783e-38
-4.311922 7.234631 6.561529 1.880790849211783e-38
-4.315950 7.234631 6.651326 1.880790849211783e-38
-4.319960 7.234630 6.740736 1.880790849211783e-38
3.879323 -1.665370 1.174230 1.880790849211783e-38
3.876182 -1.665370 1.240539 1.880790849211783e-38
3.873061 -1.665370 1.306443 1.880790849211783e-38
3.869959 -1.665370 1.371941 1.880790849211783e-38
3.866876 -1.665370 1.437041 1.880790849211783e-38
3.863811 -1.665369 1.501743 1.880790849211783e-38
3.860765 -1.665370 1.566054 1.880790849211783e-38
3.857738 -1.665370 1.629975 1.880790849211783e-38
3.854728 -1.665369 1.693511 1.880790849211783e-38
3.851737 -1.665369 1.756665 1.880790849211783e-38
3.848763 -1.665369 1.819440 1.880790849211783e-38
3.845808 -1.665370 1.881841 1.880790849211783e-38
3.842870 -1.665369 1.943869 1.880790849211783e-38
3.839950 -1.665369 2.005528 1.880790849211783e-38
3.837047 -1.665370 2.066823 1.880790849211783e-38
3.834161 -1.665370 2.127756 1.880790849211783e-38
3.831291 -1.665369 2.188329 1.880790849211783e-38
3.828439 -1.665369 2.248547 1.880790849211783e-38
3.825604 -1.665370 2.308413 1.880790849211783e-38
3.822785 -1.665370 2.367928 1.880790849211783e-38
3.819983 -1.665370 2.427099 1.880790849211783e-38
3.817197 -1.665370 2.485925 1.880790849211783e-38
3.814426 -1.665370 2.544410 1.880790849211783e-38
3.811672 -1.665370 2.602559 1.880790849211783e-38
3.808934 -1.665370 2.660372 1.880790849211783e-38
3.806211 -1.665370 2.717855 1.880790849211783e-38
3.803505 -1.665370 2.775008 1.880790849211783e-38
3.800813 -1.665370 2.831835 1.880790849211783e-38
3.798136 -1.665369 2.888339 1.880790849211783e-38
3.795475 -1.665370 2.944523 1.880790849211783e-38
3.792830 -1.665370 3.000389 1.880790849211783e-38
3.790199 -1.665370 3.055939 1.880790849211783e-38
3.787582 -1.665370 3.111178 1.880790849211783e-38
3.784981 -1.665370 3.166107 1.880790849211783e-38
3.782393 -1.665369 3.220727 1.880790849211783e-38
3.779821 -1.665370 3.275044 1.880790849211783e-38
3.777262 -1.665369 3.329059 1.880790849211783e-38
3.774718 -1.665369 3.382774 1.880790849211783e-38
3.772188 -1.665370 3.436192 1.880790849211783e-38
3.769672 -1.665370 3.489316 1.880790849211783e-38
3.767169 -1.665369 3.542147 1.880790849211783e-38
3.764681 -1.665370 3.594689 1.880790849211783e-38
3.762206 -1.665369 3.646942 1.880790849211783e-38
4.177752 -2.165369 4.162945 1.880790849211783e-38
4.175548 -2.165370 4.209473 1.880790849211783e-38
4.173357 -2.165370 4.255747 1.880790849211783e-38
4.171176 -2.165369 4.301771 1.880790849211783e-38
4.169008 -2.165369 4.347546 1.880790849211783e-38
4.136313 -2.128946 4.361131 1.880790849211783e-38
4.089978 -2.076291 4.361131 1.880790849211783e-38
4.042815 -2.022694 4.361131 1.880790849211783e-38
3.994799 -1.968129 4.361131 1.880790849211783e-38
3.945909 -1.912570 4.361132 1.880790849211783e-38
3.896119 -1.855989 4.361132 1.880790849211783e-38
3.845405 -1.798358 4.361131 1.880790849211783e-38
3.793741 -1.739646 4.361131 1.880790849211783e-38
3.741100 -1.679825 4.361131 1.880790849211783e-38
3.687454 -1.618861 4.361131 1.880790849211783e-38
3.632773 -1.556722 4.361131 1.880790849211783e-38
3.577028 -1.493374 4.361132 1.880790849211783e-38
3.520187 -1.428779 4.361131 1.880790849211783e-38
3.462218 -1.362903 4.361131 1.880790849211783e-38
3.403087 -1.295706 4.361131 1.880790849211783e-38
3.342757 -1.227148 4.361131 1.880790849211783e-38
3.281194 -1.157187 4.361131 1.880790849211783e-38
3.218357 -1.085779 4.361131 1.880790849211783e-38
3.154208 -1.012880 4.361130 1.880790849211783e-38
3.088706 -0.938444 4.361131 1.880790849211783e-38
3.021805 -0.862418 4.361131 1.880790849211783e-38
2.953462 -0.784753 4.361131 1.880790849211783e-38
-1.476852 4.434631 0.928298 1.880790849211783e-38
-1.481561 4.434629 1.027762 1.880790849211783e-38
-1.486250 4.434631 1.126721 1.880790849211783e-38
-1.490913 4.434630 1.225183 1.880790849211783e-38
-1.495553 4.434630 1.323149 1.880790849211783e-38
-1.500170 4.434630 1.420624 1.880790849211783e-38
-1.504765 4.434632 1.517609 1.880790849211783e-38
-1.509334 4.434630 1.614113 1.880790849211783e-38
-1.513883 4.434631 1.710134 1.880790849211783e-38
-1.518408 4.434631 1.805679 1.880790849211783e-38
-1.522911 4.434631 1.900751 1.880790849211783e-38
-1.527391 4.434630 1.995353 1.880790849211783e-38
-1.531851 4.434631 2.089488 1.880790849211783e-38
-1.536286 4.434630 2.183160 1.880790849211783e-38
-1.540702 4.434631 2.276372 1.880790849211783e-38
-1.545095 4.434631 2.369129 1.880790849211783e-38
-1.549466 4.434630 2.461433 1.880790849211783e-38
-1.553817 4.434631 2.553286 1.880790849211783e-38
-1.558146 4.434630 2.644694 1.880790849211783e-38
-1.562455 4.434631 2.735658 1.880790849211783e-38
-1.566743 4.434630 2.826183 1.880790849211783e-38
-1.571009 4.434629 2.916272 1.880790849211783e-38
-1.575256 4.434631 3.005926 1.880790849211783e-38
-1.579482 4.434630 3.095150 1.880790849211783e-38
-1.583687 4.434630 3.183947 1.880790849211783e-38
-1.587873 4.434631 3.272319 1.880790849211783e-38
-1.592039 4.434631 3.360271 1.880790849211783e-38
-1.596185 4.434631 3.447803 1.880790849211783e-38
-1.600312 4.434631 3.534922 1.880790849211783e-38
-1.604417 4.434630 3.621628 1.880790849211783e-38
-1.608504 4.434629 3.707925 1.880790849211783e-38
-1.612573 4.434630 3.793814 1.880790849211783e-38
-1.616622 4.434630 3.879301 1.880790849211783e-38
-1.620652 4.434630 3.964386 1.880790849211783e-38
-1.624662 4.434630 4.049074 1.880790849211783e-38
-1.542455 4.334630 4.171301 1.843732250154095e-38
-1.546394 4.334631 4.254446 1.843732250154095e-38
-1.550313 4.334630 4.337205 1.843732250154095e-38
-1.695600 4.498447 4.361130 1.843732250154095e-38
-1.905208 4.736645 4.361131 1.843732250154095e-38
-2.059761 4.910933 4.386131 1.843732250154095e-38
-2.284631 5.166477 4.386131 4.678262949117688e-40
-2.518543 5.432295 4.386131 4.678262949117688e-40
-2.762052 5.709018 4.386130 4.678262949117688e-40
-3.015758 5.997331 4.386131 4.678262949117688e-40
-3.280323 6.297982 4.386130 4.678262949117688e-40
-3.629049 6.695621 4.361131 1.843732250154095e-38
-3.919341 7.025508 4.361131 1.843732250154095e-38
-4.105883 7.235432 4.399462 1.880790849211783e-38
-4.109876 7.234631 4.498650 1.880790849211783e-38
-4.114542 7.234631 4.597164 1.880790849211783e-38
-4.119186 7.234630 4.695236 1.880790849211783e-38
-4.123810 7.234630 4.792866 1.880790849211783e-38
-4.128414 7.234630 4.890059 1.880790849211783e-38
-4.132998 7.234631 4.986819 1.880790849211783e-38
-4.137559 7.234630 5.083148 1.880790849211783e-38
-4.142101 7.234630 5.179048 1.880790849211783e-38
-4.146625 7.234632 5.274521 1.880790849211783e-38
-4.151125 7.234631 5.369573 1.880790849211783e-38
-4.155608 7.234631 5.464203 1.880790849211783e-38
-4.160070 7.234631 5.558417 1.880790849211783e-38
-4.105886 7.167305 5.665264 1.880790849211783e-38
-4.168937 7.234632 5.745604 1.880790849211783e-38
-4.173339 7.234630 5.838584 1.880790849211783e-38
-4.177724 7.234630 5.931156 1.880790849211783e-38
-4.182091 7.234632 6.023324 1.880790849211783e-38
-4.186437 7.234631 6.115092 1.880790849211783e-38
-4.190763 7.234630 6.206462 1.880790849211783e-38
-4.105884 7.132465 6.312493 1.880790849211783e-38
-4.199364 7.234632 6.388014 1.880790849211783e-38
-4.203636 7.234632 6.478203 1.880790849211783e-38
-4.207889 7.234631 6.568005 1.880790849211783e-38
-4.212123 7.234631 6.657421 1.880790849211783e-38
-4.216340 7.234631 6.746453 1.880790849211783e-38
3.930766 -1.665370 1.215778 1.880790849211783e-38
3.927486 -1.665369 1.281573 1.880790849211783e-38
3.924227 -1.665369 1.346967 1.880790849211783e-38
3.920986 -1.665370 1.411963 1.880790849211783e-38
3.917766 -1.665370 1.476565 1.880790849211783e-38
3.914566 -1.665370 1.540775 1.880790849211783e-38
3.911384 -1.665369 1.604598 1.880790849211783e-38
3.908221 -1.665370 1.668038 1.880790849211783e-38
3.905078 -1.665370 1.731096 1.880790849211783e-38
3.901953 -1.665370 1.793779 1.880790849211783e-38
3.898847 -1.665370 1.856087 1.880790849211783e-38
3.895760 -1.665370 1.918025 1.880790849211783e-38
3.892690 -1.665370 1.979596 1.880790849211783e-38
3.889639 -1.665369 2.040802 1.880790849211783e-38
3.886606 -1.665370 2.101650 1.880790849211783e-38
3.883591 -1.665370 2.162139 1.880790849211783e-38
3.880593 -1.665370 2.222274 1.880790849211783e-38
3.877613 -1.665370 2.282058 1.880790849211783e-38
3.874650 -1.665370 2.341493 1.880790849211783e-38
3.871704 -1.665369 2.400584 1.880790849211783e-38
3.868776 -1.665370 2.459333 1.880790849211783e-38
3.865864 -1.665370 2.517743 1.880790849211783e-38
3.862969 -1.665370 2.575817 1.880790849211783e-38
3.860091 -1.665370 2.633557 1.880790849211783e-38
3.857228 -1.665369 2.690967 1.880790849211783e-38
3.854383 -1.665370 2.748050 1.880790849211783e-38
3.851554 -1.665370 2.804807 1.880790849211783e-38
3.848741 -1.665370 2.861243 1.880790849211783e-38
3.845943 -1.665370 2.917359 1.880790849211783e-38
3.843161 -1.665370 2.973159 1.880790849211783e-38
3.840395 -1.665369 3.028645 1.880790849211783e-38
3.837645 -1.665370 3.083819 1.880790849211783e-38
3.834910 -1.665370 3.138685 1.880790849211783e-38
3.832190 -1.665370 3.193245 1.880790849211783e-38
3.829485 -1.665369 3.247502 1.880790849211783e-38
3.826796 -1.665370 3.301457 1.880790849211783e-38
3.824121 -1.665369 3.355114 1.880790849211783e-38
3.821461 -1.665370 3.408475 1.880790849211783e-38
3.818815 -1.665370 3.461543 1.880790849211783e-38
3.816185 -1.665370 3.514319 1.880790849211783e-38
3.813568 -1.665370 3.566806 1.880790849211783e-38
3.810966 -1.665369 3.619007 1.880790849211783e-38
3.808378 -1.665370 3.670924 1.880790849211783e-38
4.219213 -2.165369 4.184233 1.880790849211783e-38
4.216909 -2.165370 4.230463 1.880790849211783e-38
4.214616 -2.165370 4.276442 1.880790849211783e-38
4.212337 -2.165369 4.322174 1.880790849211783e-38
4.203937 -2.157971 4.361131 1.880790849211783e-38
4.158608 -2.106039 4.361131 1.880790849211783e-38
4.112476 -2.053186 4.361131 1.880790849211783e-38
4.065518 -1.999387 4.361131 1.880790849211783e-38
4.017711 -1.944617 4.361131 1.880790849211783e-38
3.969034 -1.888848 4.361131 1.880790849211783e-38
3.919461 -1.832054 4.361131 1.880790849211783e-38
3.868969 -1.774206 4.361131 1.880790849211783e-38
3.817530 -1.715274 4.361131 1.880790849211783e-38
3.765119 -1.655228 4.361131 1.880790849211783e-38
3.711707 -1.594035 4.361131 1.880790849211783e-38
3.657265 -1.531662 4.361131 1.880790849211783e-38
3.601764 -1.468076 4.361132 1.880790849211783e-38
3.545171 -1.403239 4.361131 1.880790849211783e-38
3.487456 -1.337116 4.361131 1.880790849211783e-38
3.428583 -1.269667 4.361131 1.880790849211783e-38
3.368519 -1.200853 4.361131 1.880790849211783e-38
3.307225 -1.130630 4.361132 1.880790849211783e-38
3.244664 -1.058955 4.361131 1.880790849211783e-38
3.180796 -0.985784 4.361131 1.880790849211783e-38
3.115581 -0.911068 4.361131 1.880790849211783e-38
3.048974 -0.834758 4.361131 1.880790849211783e-38
2.980931 -0.756803 4.361131 1.880790849211783e-38
2.911406 -0.677149 4.361131 1.880790849211783e-38
-1.385944 4.434630 1.062138 1.880790849211783e-38
-1.390849 4.434629 1.160539 1.880790849211783e-38
-1.395730 4.434630 1.258443 1.880790849211783e-38
-1.400585 4.434629 1.355860 1.880790849211783e-38
-1.405419 4.434631 1.452788 1.880790849211783e-38
-1.410226 4.434631 1.549234 1.880790849211783e-38
-1.415010 4.434631 1.645202 1.880790849211783e-38
-1.419770 4.434630 1.740694 1.880790849211783e-38
-1.424507 4.434630 1.835713 1.880790849211783e-38
-1.429220 4.434630 1.930264 1.880790849211783e-38
-1.433910 4.434630 2.024350 1.880790849211783e-38
-1.438578 4.434631 2.117973 1.880790849211783e-38
-1.443222 4.434631 2.211139 1.880790849211783e-38
-1.447844 4.434631 2.303849 1.880790849211783e-38
-1.452443 4.434630 2.396108 1.880790849211783e-38
-1.457020 4.434631 2.487919 1.880790849211783e-38
-1.461574 4.434631 2.579284 1.880790849211783e-38
-1.466107 4.434631 2.670208 1.880790849211783e-38
-1.470617 4.434630 2.760693 1.880790849211783e-38
-1.475107 4.434631 2.850742 1.880790849211783e-38
-1.479574 4.434632 2.940359 1.880790849211783e-38
-1.484020 4.434631 3.029547 1.880790849211783e-38
-1.488443 4.434630 3.118309 1.880790849211783e-38
-1.492848 4.434630 3.206647 1.880790849211783e-38
-1.497230 4.434630 3.294565 1.880790849211783e-38
-1.501592 4.434630 3.382066 1.880790849211783e-38
-1.505933 4.434630 3.469153 1.880790849211783e-38
-1.510254 4.434630 3.555830 1.880790849211783e-38
-1.514554 4.434630 3.642097 1.880790849211783e-38
-1.518834 4.434629 3.727959 1.880790849211783e-38
-1.523096 4.434631 3.813417 1.880790849211783e-38
-1.527335 4.434630 3.898477 1.880790849211783e-38
-1.531556 4.434631 3.983140 1.880790849211783e-38
-1.535755 4.434628 4.067409 1.880790849211783e-38
-1.454536 4.334631 4.189058 1.843732250154095e-38
-1.458660 4.334630 4.271795 1.843732250154095e-38
-1.462766 4.334630 4.354149 1.843732250154095e-38
-1.647346 4.545702 4.361131 1.843732250154095e-38
-1.855999 4.784750 4.361131 1.843732250154095e-38
-2.009878 4.959618 4.386131 1.843732250154095e-38
-2.233721 5.216069 4.386131 4.678262949117688e-40
-2.466562 5.482829 4.386131 4.678262949117688e-40
-2.708955 5.760532 4.386131 4.678262949117688e-40
-2.961495 6.049861 4.386131 4.678262949117688e-40
-3.224854 6.351585 4.386127 4.678262949117688e-40
-3.571943 6.750664 4.361131 1.843732250154095e-38
-3.860893 7.081708 4.361131 1.843732250154095e-38
-4.082970 7.334630 4.387492 1.880790849211783e-38
-4.087915 7.334630 4.486700 1.880790849211783e-38
-4.092839 7.334631 4.585463 1.880790849211783e-38
-4.097741 7.334631 4.683784 1.880790849211783e-38
-4.102618 7.334629 4.781665 1.880790849211783e-38
-4.105883 7.332778 4.879569 1.880790849211783e-38
-4.105883 7.327161 4.977919 1.880790849211783e-38
-4.105883 7.321573 5.075754 1.880790849211783e-38
-4.105883 7.316014 5.173078 1.880790849211783e-38
-4.105884 7.310487 5.269896 1.880790849211783e-38
-4.105884 7.304986 5.366210 1.880790849211783e-38
-4.105883 7.299513 5.462025 1.880790849211783e-38
-4.105884 7.294069 5.557345 1.880790849211783e-38
-4.105883 7.288653 5.652174 1.880790849211783e-38
-4.105884 7.283266 5.746516 1.880790849211783e-38
-4.105884 7.277905 5.840373 1.880790849211783e-38
-4.105884 7.272573 5.933751 1.880790849211783e-38
-4.105883 7.267266 6.026652 1.880790849211783e-38
-4.105882 7.261986 6.119081 1.880790849211783e-38
-4.105884 7.256735 6.211039 1.880790849211783e-38
-4.105884 7.251511 6.302533 1.880790849211783e-38
-4.105884 7.246313 6.393564 1.880790849211783e-38
-4.105883 7.241138 6.484137 1.880790849211783e-38
-4.105883 7.235991 6.574255 1.880790849211783e-38
-4.109143 7.234631 6.663465 1.880790849211783e-38
-4.113563 7.234632 6.752122 1.880790849211783e-38
3.981611 -1.665370 1.256843 1.880790849211783e-38
3.978195 -1.665370 1.322132 1.880790849211783e-38
3.974800 -1.665370 1.387024 1.880790849211783e-38
3.971426 -1.665370 1.451524 1.880790849211783e-38
3.968072 -1.665370 1.515635 1.880790849211783e-38
3.964738 -1.665370 1.579359 1.880790849211783e-38
3.961424 -1.665370 1.642702 1.880790849211783e-38
3.958130 -1.665370 1.705666 1.880790849211783e-38
3.954855 -1.665369 1.768255 1.880790849211783e-38
3.951601 -1.665369 1.830471 1.880790849211783e-38
3.948366 -1.665370 1.892320 1.880790849211783e-38
3.945149 -1.665370 1.953801 1.880790849211783e-38
3.941951 -1.665370 2.014922 1.880790849211783e-38
3.938772 -1.665370 2.075682 1.880790849211783e-38
3.935612 -1.665370 2.136088 1.880790849211783e-38
3.932470 -1.665370 2.196140 1.880790849211783e-38
3.929347 -1.665369 2.255841 1.880790849211783e-38
3.926242 -1.665370 2.315197 1.880790849211783e-38
3.923154 -1.665370 2.374210 1.880790849211783e-38
3.920084 -1.665369 2.432881 1.880790849211783e-38
3.917033 -1.665370 2.491214 1.880790849211783e-38
3.913999 -1.665370 2.549213 1.880790849211783e-38
3.910983 -1.665371 2.606881 1.880790849211783e-38
3.907982 -1.665370 2.664218 1.880790849211783e-38
3.905000 -1.665370 2.721230 1.880790849211783e-38
3.902034 -1.665370 2.777918 1.880790849211783e-38
3.899085 -1.665370 2.834285 1.880790849211783e-38
3.896153 -1.665370 2.890334 1.880790849211783e-38
3.893237 -1.665370 2.946068 1.880790849211783e-38
3.890337 -1.665370 3.001489 1.880790849211783e-38
3.887454 -1.665370 3.056600 1.880790849211783e-38
3.884587 -1.665370 3.111403 1.880790849211783e-38
3.881736 -1.665370 3.165902 1.880790849211783e-38
3.878900 -1.665369 3.220097 1.880790849211783e-38
3.876081 -1.665370 3.273994 1.880790849211783e-38
3.873276 -1.665369 3.327592 1.880790849211783e-38
3.870487 -1.665369 3.380895 1.880790849211783e-38
3.867714 -1.665369 3.433907 1.880790849211783e-38
3.864957 -1.665370 3.486629 1.880790849211783e-38
3.862213 -1.665370 3.539062 1.880790849211783e-38
3.859485 -1.665370 3.591210 1.880790849211783e-38
3.856771 -1.665369 3.643074 1.880790849211783e-38
3.854073 -1.665369 3.694659 1.880790849211783e-38
4.260248 -2.165370 4.205302 1.880790849211783e-38
4.257845 -2.165370 4.251237 1.880790849211783e-38
4.255454 -2.165369 4.296926 1.880790849211783e-38
4.253077 -2.165369 4.342370 1.880790849211783e-38
4.226031 -2.135264 4.361132 1.880790849211783e-38
4.180900 -2.083137 4.361131 1.880790849211783e-38
4.134969 -2.030085 4.361131 1.880790849211783e-38
4.088216 -1.976084 4.361131 1.880790849211783e-38
4.040619 -1.921108 4.361131 1.880790849211783e-38
3.992155 -1.865131 4.361131 1.880790849211783e-38
3.942800 -1.808124 4.361132 1.880790849211783e-38
3.892528 -1.750059 4.361131 1.880790849211783e-38
3.841315 -1.690906 4.361131 1.880790849211783e-38
3.789133 -1.630635 4.361131 1.880790849211783e-38
3.735955 -1.569213 4.361131 1.880790849211783e-38
3.681753 -1.506607 4.361131 1.880790849211783e-38
3.626495 -1.442783 4.361131 1.880790849211783e-38
3.570152 -1.377705 4.361131 1.880790849211783e-38
3.512690 -1.311335 4.361132 1.880790849211783e-38
3.454076 -1.243634 4.361131 1.880790849211783e-38
3.394275 -1.174562 4.361131 1.880790849211783e-38
3.333251 -1.104078 4.361131 1.880790849211783e-38
3.270965 -1.032136 4.361131 1.880790849211783e-38
3.207379 -0.958692 4.361131 1.880790849211783e-38
3.142450 -0.883698 4.361131 1.880790849211783e-38
3.076137 -0.807105 4.361131 1.880790849211783e-38
3.008395 -0.728860 4.361131 1.880790849211783e-38
2.939175 -0.648910 4.361131 1.880790849211783e-38
-1.291241 4.434631 1.096186 1.880790849211783e-38
-1.296358 4.434628 1.194033 1.880790849211783e-38
-1.301452 4.434629 1.291388 1.880790849211783e-38
-1.306520 4.434630 1.388259 1.880790849211783e-38
-1.311564 4.434631 1.484648 1.880790849211783e-38
-1.316582 4.434630 1.580560 1.880790849211783e-38
-1.321575 4.434631 1.675998 1.880790849211783e-38
-1.326543 4.434630 1.770965 1.880790849211783e-38
-1.331487 4.434631 1.865464 1.880790849211783e-38
-1.336406 4.434631 1.959500 1.880790849211783e-38
-1.341303 4.434631 2.053075 1.880790849211783e-38
-1.346174 4.434631 2.146193 1.880790849211783e-38
-1.351021 4.434631 2.238858 1.880790849211783e-38
-1.355846 4.434631 2.331072 1.880790849211783e-38
-1.360647 4.434632 2.422838 1.880790849211783e-38
-1.365425 4.434632 2.514161 1.880790849211783e-38
-1.370179 4.434631 2.605043 1.880790849211783e-38
-1.374911 4.434632 2.695487 1.880790849211783e-38
-1.379620 4.434631 2.785498 1.880790849211783e-38
-1.384307 4.434631 2.875077 1.880790849211783e-38
-1.388970 4.434631 2.964228 1.880790849211783e-38
-1.393612 4.434631 3.052953 1.880790849211783e-38
-1.398232 4.434631 3.141257 1.880790849211783e-38
-1.402831 4.434632 3.229141 1.880790849211783e-38
-1.407406 4.434632 3.316610 1.880790849211783e-38
-1.411961 4.434631 3.403665 1.880790849211783e-38
-1.416493 4.434631 3.490311 1.880790849211783e-38
-1.421005 4.434630 3.576549 1.880790849211783e-38
-1.425495 4.434631 3.662382 1.880790849211783e-38
-1.429965 4.434631 3.747813 1.880790849211783e-38
-1.307735 4.284631 3.893807 1.880790849211783e-38
-1.312104 4.284631 3.977301 1.880790849211783e-38
-1.443249 4.434632 4.001727 1.880790849211783e-38
-1.447631 4.434626 4.085582 1.880790849211783e-38
-1.367392 4.334631 4.206659 1.843732250154095e-38
-1.371699 4.334630 4.288992 1.843732250154095e-38
-1.399000 4.361805 4.361129 1.843732250154095e-38
-1.599112 4.592940 4.361130 1.843732250154095e-38
-1.806812 4.832839 4.361131 1.843732250154095e-38
-2.000341 5.055834 4.370006 1.843732250154095e-38
-2.182829 5.265639 4.386131 4.678262949117688e-40
-2.414603 5.533344 4.386130 4.678262949117688e-40
-2.655880 5.812026 4.386131 4.678262949117688e-40
-2.907259 6.102376 4.386131 4.678262949117688e-40
-3.169391 6.405146 4.386130 1.843732250154095e-38
-3.442980 6.721149 4.386130 1.843732250154095e-38
-3.802472 7.137883 4.361131 1.843732250154095e-38
-3.975031 7.334631 4.403539 1.880790849211783e-38
-3.980197 7.334631 4.502288 1.880790849211783e-38
-3.985342 7.334632 4.600595 1.880790849211783e-38
-3.990462 7.334633 4.698464 1.880790849211783e-38
-3.995559 7.334632 4.795898 1.880790849211783e-38
-4.000633 7.334631 4.892900 1.880790849211783e-38
-4.005684 7.334630 4.989471 1.880790849211783e-38
-4.010715 7.334631 5.085615 1.880790849211783e-38
-4.015723 7.334631 5.181334 1.880790849211783e-38
-4.020709 7.334631 5.276635 1.880790849211783e-38
-4.025674 7.334633 5.371514 1.880790849211783e-38
-4.030614 7.334631 5.465979 1.880790849211783e-38
-4.035534 7.334630 5.560030 1.880790849211783e-38
-4.040435 7.334633 5.653672 1.880790849211783e-38
-4.045312 7.334632 5.746906 1.880790849211783e-38
-4.050169 7.334632 5.839735 1.880790849211783e-38
-4.055004 7.334631 5.932161 1.880790849211783e-38
-4.059817 7.334631 6.024189 1.880790849211783e-38
-4.064612 7.334632 6.115817 1.880790849211783e-38
-4.069385 7.334632 6.207052 1.880790849211783e-38
-4.074138 7.334632 6.297895 1.880790849211783e-38
-4.078871 7.334633 6.388349 1.880790849211783e-38
-4.083580 7.334630 6.478415 1.880790849211783e-38
-4.088272 7.334630 6.568097 1.880790849211783e-38
-4.092945 7.334631 6.657396 1.880790849211783e-38
-4.097596 7.334630 6.746316 1.880790849211783e-38
4.031868 -1.665370 1.297432 1.880790849211783e-38
4.028319 -1.665370 1.362222 1.880790849211783e-38
4.024792 -1.665369 1.426619 1.880790849211783e-38
4.021287 -1.665370 1.490631 1.880790849211783e-38
4.017803 -1.665370 1.554259 1.880790849211783e-38
4.014338 -1.665369 1.617504 1.880790849211783e-38
4.010896 -1.665370 1.680374 1.880790849211783e-38
4.007474 -1.665370 1.742870 1.880790849211783e-38
4.004071 -1.665370 1.804994 1.880790849211783e-38
4.000690 -1.665370 1.866752 1.880790849211783e-38
3.997327 -1.665370 1.928145 1.880790849211783e-38
3.993984 -1.665370 1.989177 1.880790849211783e-38
3.990662 -1.665370 2.049853 1.880790849211783e-38
3.987358 -1.665369 2.110173 1.880790849211783e-38
3.984074 -1.665369 2.170142 1.880790849211783e-38
3.980809 -1.665370 2.229763 1.880790849211783e-38
3.977563 -1.665369 2.289039 1.880790849211783e-38
3.974336 -1.665370 2.347972 1.880790849211783e-38
3.971127 -1.665370 2.406566 1.880790849211783e-38
3.967936 -1.665369 2.464824 1.880790849211783e-38
3.964764 -1.665369 2.522748 1.880790849211783e-38
3.961611 -1.665370 2.580342 1.880790849211783e-38
3.958474 -1.665370 2.637607 1.880790849211783e-38
3.955356 -1.665369 2.694547 1.880790849211783e-38
3.952256 -1.665370 2.751167 1.880790849211783e-38
3.949172 -1.665369 2.807465 1.880790849211783e-38
3.946107 -1.665370 2.863448 1.880790849211783e-38
3.943058 -1.665370 2.919114 1.880790849211783e-38
3.940027 -1.665370 2.974470 1.880790849211783e-38
3.937012 -1.665370 3.029517 1.880790849211783e-38
3.934014 -1.665370 3.084258 1.880790849211783e-38
3.931033 -1.665370 3.138695 1.880790849211783e-38
3.928068 -1.665370 3.192830 1.880790849211783e-38
3.925120 -1.665370 3.246667 1.880790849211783e-38
3.922188 -1.665370 3.300208 1.880790849211783e-38
3.919271 -1.665370 3.353454 1.880790849211783e-38
3.916371 -1.665369 3.406409 1.880790849211783e-38
3.913487 -1.665370 3.459075 1.880790849211783e-38
3.910619 -1.665369 3.511454 1.880790849211783e-38
3.907766 -1.665369 3.563548 1.880790849211783e-38
3.904928 -1.665370 3.615361 1.880790849211783e-38
3.902106 -1.665369 3.666894 1.880790849211783e-38
4.303376 -2.165369 4.180263 1.880790849211783e-38
4.300862 -2.165369 4.226154 1.880790849211783e-38
4.298363 -2.165369 4.271799 1.880790849211783e-38
4.295876 -2.165369 4.317200 1.880790849211783e-38
4.292276 -2.163979 4.361131 1.880790849211783e-38
4.248120 -2.112561 4.361131 1.880790849211783e-38
4.203187 -2.060238 4.361131 1.880790849211783e-38
4.157459 -2.006989 4.361131 1.880790849211783e-38
4.110911 -1.952786 4.361131 1.880790849211783e-38
4.063523 -1.897604 4.361131 1.880790849211783e-38
4.015272 -1.841417 4.361131 1.880790849211783e-38
3.966133 -1.784198 4.361131 1.880790849211783e-38
3.916083 -1.725917 4.361132 1.880790849211783e-38
3.865095 -1.666543 4.361131 1.880790849211783e-38
3.813143 -1.606046 4.361131 1.880790849211783e-38
3.760200 -1.544396 4.361131 1.880790849211783e-38
3.706236 -1.481557 4.361131 1.880790849211783e-38
3.651221 -1.417495 4.361131 1.880790849211783e-38
3.595126 -1.352175 4.361131 1.880790849211783e-38
3.537918 -1.285558 4.361131 1.880790849211783e-38
3.479563 -1.217606 4.361131 1.880790849211783e-38
3.420027 -1.148278 4.361132 1.880790849211783e-38
3.359272 -1.077532 4.361131 1.880790849211783e-38
3.297260 -1.005322 4.361130 1.880790849211783e-38
3.233955 -0.931606 4.361131 1.880790849211783e-38
3.169315 -0.856335 4.361131 1.880790849211783e-38
3.103295 -0.779457 4.361131 1.880790849211783e-38
3.035853 -0.700924 4.361131 1.880790849211783e-38
2.966940 -0.620677 4.361131 1.880790849211783e-38
2.896509 -0.538663 4.361131 1.880790849211783e-38
-1.202766 4.434630 1.227207 1.880790849211783e-38
-1.208068 4.434629 1.324021 1.880790849211783e-38
-1.213344 4.434629 1.420353 1.880790849211783e-38
-1.218593 4.434629 1.516210 1.880790849211783e-38
-1.223818 4.434632 1.611591 1.880790849211783e-38
-1.229015 4.434631 1.706506 1.880790849211783e-38
-1.234188 4.434631 1.800953 1.880790849211783e-38
-1.239335 4.434631 1.894938 1.880790849211783e-38
-1.244456 4.434630 1.988465 1.880790849211783e-38
-1.249552 4.434630 2.081535 1.880790849211783e-38
-1.254625 4.434631 2.174152 1.880790849211783e-38
-1.259673 4.434631 2.266321 1.880790849211783e-38
-1.264696 4.434630 2.358043 1.880790849211783e-38
-1.269696 4.434631 2.449322 1.880790849211783e-38
-1.274670 4.434631 2.540163 1.880790849211783e-38
-1.279621 4.434632 2.630566 1.880790849211783e-38
-1.284549 4.434632 2.720536 1.880790849211783e-38
-1.289450 4.434630 2.810078 1.880790849211783e-38
-1.294332 4.434632 2.899190 1.880790849211783e-38
-1.299188 4.434631 2.987880 1.880790849211783e-38
-1.304023 4.434632 3.076148 1.880790849211783e-38
-1.308833 4.434631 3.163999 1.880790849211783e-38
-1.313622 4.434631 3.251434 1.880790849211783e-38
